0.332292	-0.023599	0.707733	
0.332293	-0.023600	0.707759	
0.332291	-0.023600	0.707743	
0.332287	-0.023593	0.707731	
0.332289	-0.023588	0.707749	
0.332288	-0.023588	0.707739	
0.332287	-0.023590	0.707733	
0.332286	-0.023590	0.707736	
0.332284	-0.023584	0.707741	
0.332284	-0.023584	0.707746	
0.332282	-0.023581	0.707758	
0.332281	-0.023585	0.707760	
0.332280	-0.023585	0.707752	
0.332281	-0.023584	0.707723	
0.332277	-0.023580	0.707771	
0.332276	-0.023578	0.707747	
0.332273	-0.023581	0.707736	
0.332276	-0.023583	0.707747	
0.332276	-0.023578	0.707770	
0.332276	-0.023579	0.707772	
0.332275	-0.023570	0.707777	
0.332271	-0.023568	0.707780	
0.332275	-0.023571	0.707769	
0.332274	-0.023571	0.707771	
0.332274	-0.023567	0.707771	
0.332274	-0.023567	0.707788	
0.332279	-0.023564	0.707794	
0.332277	-0.023565	0.707773	
0.332279	-0.023562	0.707772	
0.332281	-0.023557	0.707770	
0.332280	-0.023553	0.707778	
0.332281	-0.023554	0.707775	
0.332281	-0.023554	0.707756	
0.332287	-0.023563	0.707793	
0.332284	-0.023557	0.707776	
0.332290	-0.023558	0.707778	
0.332290	-0.023555	0.707778	
0.332290	-0.023560	0.707775	
0.332289	-0.023562	0.707780	
0.332293	-0.023567	0.707776	
0.332294	-0.023567	0.707770	
0.332298	-0.023563	0.707781	
0.332297	-0.023564	0.707764	
0.332301	-0.023571	0.707766	
0.332302	-0.023574	0.707774	
0.332300	-0.023575	0.707765	
0.332302	-0.023575	0.707780	
0.332307	-0.023574	0.707779	
0.332300	-0.023576	0.707728	
0.332307	-0.023586	0.707743	
0.332301	-0.023587	0.707744	
0.332305	-0.023587	0.707730	
0.332302	-0.023583	0.707733	
0.332304	-0.023587	0.707724	
0.332302	-0.023594	0.707720	
0.332300	-0.023597	0.707729	
0.332302	-0.023592	0.707731	
0.332302	-0.023583	0.707703	
0.332303	-0.023589	0.707716	
0.332302	-0.023591	0.707742	
0.332302	-0.023591	0.707725	
0.332303	-0.023592	0.707709	
0.332304	-0.023592	0.707727	
0.332304	-0.023589	0.707722	
0.332301	-0.023590	0.707706	
0.332301	-0.023595	0.707711	
0.332302	-0.023598	0.707738	
0.332303	-0.023592	0.707702	
0.332301	-0.023590	0.707722	
0.332300	-0.023590	0.707713	
0.332298	-0.023589	0.707723	
0.332299	-0.023592	0.707718	
0.332298	-0.023587	0.707731	
0.332296	-0.023586	0.707723	
0.332296	-0.023589	0.707717	
0.332299	-0.023592	0.707713	
0.332299	-0.023592	0.707734	
0.332300	-0.023590	0.707730	
0.332301	-0.023584	0.707717	
0.332302	-0.023587	0.707736	
0.332308	-0.023589	0.707758	
0.332302	-0.023586	0.707727	
0.332308	-0.023583	0.707736	
0.332309	-0.023578	0.707731	
0.332310	-0.023578	0.707749	
0.332316	-0.023579	0.707753	
0.332317	-0.023572	0.707743	
0.332313	-0.023573	0.707756	
0.332314	-0.023573	0.707755	
0.332317	-0.023574	0.707761	
0.332320	-0.023569	0.707742	
0.332320	-0.023562	0.707754	
0.332322	-0.023566	0.707762	
0.332321	-0.023567	0.707772	
0.332323	-0.023571	0.707754	
0.332322	-0.023564	0.707753	
0.332323	-0.023565	0.707755	
0.332323	-0.023562	0.707758	
0.332323	-0.023567	0.707760	
0.332322	-0.023570	0.707768	
0.332322	-0.023567	0.707762	
0.332323	-0.023566	0.707774	
0.332320	-0.023564	0.707759	
0.332317	-0.023562	0.707766	
0.332315	-0.023568	0.707748	
0.332310	-0.023567	0.707745	
0.332310	-0.023570	0.707773	
0.332309	-0.023568	0.707762	
0.332305	-0.023570	0.707766	
0.332298	-0.023577	0.707743	
0.332302	-0.023578	0.707760	
0.332298	-0.023579	0.707761	
0.332297	-0.023576	0.707768	
0.332291	-0.023575	0.707751	
0.332292	-0.023576	0.707747	
0.332291	-0.023581	0.707744	
0.332287	-0.023585	0.707753	
0.332286	-0.023582	0.707734	
0.332284	-0.023581	0.707752	
0.332282	-0.023577	0.707735	
0.332279	-0.023584	0.707712	
0.332277	-0.023588	0.707732	
0.332276	-0.023587	0.707718	
0.332275	-0.023587	0.707752	
0.332272	-0.023587	0.707716	
0.332276	-0.023588	0.707721	
0.332272	-0.023592	0.707729	
0.332273	-0.023593	0.707715	
0.332268	-0.023589	0.707724	
0.332267	-0.023589	0.707758	
0.332266	-0.023588	0.707738	
0.332269	-0.023593	0.707747	
0.332270	-0.023593	0.707725	
0.332269	-0.023595	0.707747	
0.332268	-0.023594	0.707724	
0.332270	-0.023596	0.707735	
0.332267	-0.023603	0.707711	
0.332270	-0.023602	0.707738	
0.332273	-0.023596	0.707716	
0.332272	-0.023597	0.707749	
0.332272	-0.023599	0.707737	
0.332275	-0.023599	0.707747	
0.332272	-0.023593	0.707738	
0.332272	-0.023590	0.707776	
0.332274	-0.023589	0.707746	
0.332275	-0.023590	0.707754	
0.332275	-0.023589	0.707765	
0.332280	-0.023582	0.707759	
0.332279	-0.023578	0.707776	
0.332276	-0.023570	0.707757	
0.332277	-0.023569	0.707777	
0.332277	-0.023565	0.707788	
0.332275	-0.023570	0.707784	
0.332277	-0.023571	0.707780	
0.332277	-0.023567	0.707803	
0.332276	-0.023567	0.707790	
0.332275	-0.023564	0.707782	
0.332278	-0.023560	0.707779	
0.332276	-0.023561	0.707777	
0.332275	-0.023562	0.707748	
0.332275	-0.023566	0.707787	
0.332274	-0.023566	0.707783	
0.332272	-0.023563	0.707768	
0.332275	-0.023567	0.707780	
0.332273	-0.023568	0.707752	
0.332276	-0.023574	0.707755	
0.332274	-0.023575	0.707761	
0.332276	-0.023566	0.707776	
0.332276	-0.023569	0.707771	
0.332276	-0.023573	0.707797	
0.332277	-0.023575	0.707784	
0.332277	-0.023576	0.707741	
0.332277	-0.023573	0.707756	
0.332281	-0.023574	0.707746	
0.332281	-0.023578	0.707781	
0.332283	-0.023584	0.707748	
0.332294	-0.023591	0.707750	
0.332294	-0.023586	0.707744	
0.332297	-0.023583	0.707729	
0.332297	-0.023592	0.707733	
0.332298	-0.023595	0.707737	
0.332302	-0.023597	0.707727	
0.332305	-0.023597	0.707730	
0.332303	-0.023600	0.707728	
0.332305	-0.023599	0.707722	
0.332305	-0.023596	0.707709	
0.332306	-0.023605	0.707728	
0.332306	-0.023602	0.707731	
0.332308	-0.023602	0.707709	
0.332311	-0.023599	0.707737	
0.332312	-0.023596	0.707734	
0.332314	-0.023602	0.707726	
0.332315	-0.023602	0.707740	
0.332314	-0.023597	0.707729	
0.332319	-0.023590	0.707725	
0.332317	-0.023593	0.707729	
0.332319	-0.023595	0.707738	
0.332318	-0.023593	0.707734	
0.332319	-0.023591	0.707743	
0.332320	-0.023582	0.707730	
0.332317	-0.023579	0.707737	
0.332315	-0.023577	0.707743	
0.332317	-0.023566	0.707751	
0.332317	-0.023574	0.707781	
0.332319	-0.023565	0.707758	
0.332317	-0.023566	0.707750	
0.332319	-0.023558	0.707770	
0.332319	-0.023560	0.707735	
0.332320	-0.023558	0.707773	
0.332321	-0.023565	0.707757	
0.332323	-0.023560	0.707789	
0.332319	-0.023557	0.707767	
0.332317	-0.023553	0.707780	
0.332318	-0.023556	0.707774	
0.332320	-0.023563	0.707780	
0.332320	-0.023566	0.707769	
0.332321	-0.023565	0.707752	
0.332318	-0.023562	0.707778	
0.332319	-0.023562	0.707758	
0.332318	-0.023567	0.707740	
0.332317	-0.023569	0.707769	
0.332316	-0.023562	0.707750	
0.332320	-0.023561	0.707748	
0.332319	-0.023566	0.707746	
0.332314	-0.023567	0.707750	
0.332316	-0.023572	0.707749	
0.332317	-0.023574	0.707733	
0.332319	-0.023582	0.707733	
0.332317	-0.023580	0.707742	
0.332316	-0.023580	0.707766	
0.332313	-0.023582	0.707765	
0.332311	-0.023583	0.707732	
0.332308	-0.023585	0.707736	
0.332306	-0.023586	0.707740	
0.332301	-0.023585	0.707725	
0.332302	-0.023588	0.707739	
0.332299	-0.023591	0.707720	
0.332299	-0.023596	0.707716	
0.332295	-0.023597	0.707721	
0.332291	-0.023594	0.707729	
0.332291	-0.023591	0.707733	
0.332291	-0.023600	0.707742	
0.332285	-0.023600	0.707714	
0.332284	-0.023599	0.707705	
0.332284	-0.023591	0.707719	
0.332283	-0.023590	0.707730	
0.332286	-0.023595	0.707719	
0.332279	-0.023597	0.707732	
0.332276	-0.023596	0.707721	
0.332277	-0.023595	0.707713	
0.332275	-0.023592	0.707723	
0.332270	-0.023585	0.707718	
0.332274	-0.023591	0.707716	
0.332273	-0.023589	0.707740	
0.332269	-0.023587	0.707743	
0.332267	-0.023579	0.707729	
0.332267	-0.023575	0.707744	
0.332269	-0.023578	0.707723	
0.332264	-0.023581	0.707746	
0.332264	-0.023575	0.707736	
0.332267	-0.023569	0.707766	
0.332266	-0.023568	0.707757	
0.332268	-0.023572	0.707753	
0.332266	-0.023573	0.707768	
0.332263	-0.023577	0.707763	
0.332263	-0.023571	0.707749	
0.332266	-0.023566	0.707751	
0.332264	-0.023568	0.707772	
0.332265	-0.023567	0.707772	
0.332267	-0.023567	0.707778	
0.332265	-0.023566	0.707753	
0.332263	-0.023558	0.707772	
0.332264	-0.023563	0.707761	
0.332263	-0.023562	0.707780	
0.332267	-0.023568	0.707761	
0.332265	-0.023568	0.707763	
0.332265	-0.023567	0.707740	
0.332265	-0.023564	0.707774	
0.332268	-0.023563	0.707779	
0.332271	-0.023570	0.707802	
0.332266	-0.023564	0.707778	
0.332268	-0.023565	0.707779	
0.332269	-0.023558	0.707783	
0.332267	-0.023561	0.707757	
0.332268	-0.023564	0.707749	
0.332267	-0.023570	0.707746	
0.332268	-0.023568	0.707766	
0.332268	-0.023567	0.707773	
0.332266	-0.023562	0.707745	
0.332267	-0.023569	0.707776	
0.332266	-0.023572	0.707760	
0.332268	-0.023574	0.707766	
0.332269	-0.023572	0.707776	
0.332264	-0.023568	0.707763	
0.332267	-0.023567	0.707763	
0.332270	-0.023575	0.707741	
0.332269	-0.023579	0.707763	
0.332268	-0.023580	0.707765	
0.332268	-0.023576	0.707756	
0.332269	-0.023577	0.707758	
0.332270	-0.023583	0.707756	
0.332271	-0.023592	0.707733	
0.332275	-0.023591	0.707747	
0.332272	-0.023586	0.707738	
0.332273	-0.023586	0.707746	
0.332275	-0.023586	0.707736	
0.332273	-0.023588	0.707733	
0.332275	-0.023594	0.707727	
0.332278	-0.023593	0.707762	
0.332278	-0.023589	0.707736	
0.332281	-0.023589	0.707733	
0.332281	-0.023590	0.707729	
0.332282	-0.023596	0.707735	
0.332284	-0.023597	0.707746	
0.332284	-0.023598	0.707743	
0.332288	-0.023593	0.707759	
0.332292	-0.023590	0.707767	
0.332294	-0.023594	0.707742	
0.332294	-0.023597	0.707752	
0.332297	-0.023592	0.707753	
0.332299	-0.023587	0.707764	
0.332304	-0.023584	0.707748	
0.332306	-0.023587	0.707746	
0.332306	-0.023591	0.707752	
0.332306	-0.023589	0.707755	
0.332308	-0.023586	0.707764	
0.332311	-0.023580	0.707762	
0.332314	-0.023585	0.707771	
0.332314	-0.023583	0.707744	
0.332316	-0.023583	0.707765	
0.332314	-0.023582	0.707765	
0.332316	-0.023574	0.707770	
0.332317	-0.023575	0.707792	
0.332319	-0.023579	0.707778	
0.332317	-0.023575	0.707782	
0.332320	-0.023575	0.707771	
0.332322	-0.023573	0.707770	
0.332322	-0.023573	0.707767	
0.332322	-0.023574	0.707793	
0.332323	-0.023579	0.707777	
0.332322	-0.023574	0.707760	
0.332327	-0.023569	0.707785	
0.332325	-0.023568	0.707780	
0.332324	-0.023562	0.707774	
0.332324	-0.023566	0.707794	
0.332327	-0.023567	0.707780	
0.332323	-0.023566	0.707757	
0.332323	-0.023564	0.707783	
0.332323	-0.023559	0.707764	
0.332323	-0.023565	0.707788	
0.332321	-0.023567	0.707754	
0.332321	-0.023568	0.707752	
0.332323	-0.023565	0.707784	
0.332323	-0.023563	0.707758	
0.332320	-0.023563	0.707749	
0.332320	-0.023567	0.707753	
0.332320	-0.023566	0.707763	
0.332318	-0.023567	0.707757	
0.332320	-0.023567	0.707801	
0.332323	-0.023570	0.707780	
0.332321	-0.023574	0.707786	
0.332320	-0.023580	0.707775	
0.332320	-0.023581	0.707756	
0.332318	-0.023581	0.707761	
0.332317	-0.023579	0.707753	
0.332321	-0.023585	0.707746	
0.332317	-0.023590	0.707763	
0.332317	-0.023591	0.707749	
0.332316	-0.023587	0.707750	
0.332315	-0.023586	0.707728	
0.332314	-0.023588	0.707755	
0.332313	-0.023591	0.707713	
0.332312	-0.023596	0.707748	
0.332310	-0.023596	0.707745	
0.332311	-0.023592	0.707723	
0.332311	-0.023594	0.707744	
0.332308	-0.023599	0.707754	
0.332311	-0.023601	0.707747	
0.332309	-0.023603	0.707743	
0.332306	-0.023598	0.707764	
0.332305	-0.023594	0.707736	
0.332302	-0.023590	0.707721	
0.332301	-0.023593	0.707765	
0.332302	-0.023593	0.707748	
0.332300	-0.023596	0.707764	
0.332300	-0.023587	0.707748	
0.332298	-0.023589	0.707749	
0.332295	-0.023588	0.707737	
0.332296	-0.023593	0.707766	
0.332295	-0.023594	0.707764	
0.332289	-0.023587	0.707750	
0.332287	-0.023584	0.707758	
0.332287	-0.023580	0.707759	
0.332283	-0.023588	0.707757	
0.332284	-0.023583	0.707774	
0.332279	-0.023580	0.707732	
0.332279	-0.023572	0.707774	
0.332280	-0.023572	0.707763	
0.332277	-0.023578	0.707747	
0.332277	-0.023581	0.707787	
0.332273	-0.023578	0.707749	
0.332272	-0.023572	0.707748	
0.332272	-0.023572	0.707766	
0.332270	-0.023574	0.707743	
0.332266	-0.023574	0.707744	
0.332268	-0.023577	0.707762	
0.332267	-0.023571	0.707759	
0.332269	-0.023569	0.707783	
0.332265	-0.023564	0.707774	
0.332262	-0.023568	0.707793	
0.332265	-0.023570	0.707785	
0.332266	-0.023569	0.707782	
0.332264	-0.023567	0.707783	
0.332264	-0.023571	0.707763	
0.332265	-0.023570	0.707777	
0.332264	-0.023570	0.707750	
0.332265	-0.023567	0.707788	
0.332264	-0.023566	0.707773	
0.332267	-0.023561	0.707784	
0.332267	-0.023560	0.707748	
0.332267	-0.023568	0.707785	
0.332267	-0.023569	0.707762	
0.332273	-0.023570	0.707774	
0.332271	-0.023567	0.707785	
0.332270	-0.023566	0.707773	
0.332271	-0.023574	0.707780	
0.332273	-0.023578	0.707754	
0.332270	-0.023577	0.707741	
0.332266	-0.023578	0.707756	
0.332269	-0.023574	0.707752	
0.332270	-0.023579	0.707749	
0.332272	-0.023580	0.707768	
0.332270	-0.023585	0.707758	
0.332270	-0.023583	0.707736	
0.332271	-0.023581	0.707759	
0.332267	-0.023584	0.707757	
0.332266	-0.023588	0.707748	
0.332269	-0.023592	0.707725	
0.332270	-0.023593	0.707740	
0.332270	-0.023591	0.707768	
0.332272	-0.023592	0.707773	
0.332269	-0.023593	0.707745	
0.332269	-0.023597	0.707738	
0.332271	-0.023591	0.707739	
0.332269	-0.023590	0.707735	
0.332270	-0.023583	0.707755	
0.332271	-0.023587	0.707768	
0.332269	-0.023588	0.707726	
0.332271	-0.023593	0.707741	
0.332272	-0.023590	0.707761	
0.332271	-0.023582	0.707731	
0.332272	-0.023585	0.707736	
0.332271	-0.023587	0.707739	
0.332273	-0.023589	0.707744	
0.332274	-0.023591	0.707746	
0.332275	-0.023581	0.707752	
0.332274	-0.023583	0.707754	
0.332263	-0.023573	0.707825	
0.332275	-0.023587	0.707746	
0.332276	-0.023586	0.707740	
0.332277	-0.023583	0.707757	
0.332279	-0.023583	0.707740	
0.332278	-0.023581	0.707750	
0.332282	-0.023586	0.707761	
0.332283	-0.023586	0.707739	
0.332286	-0.023590	0.707760	
0.332284	-0.023584	0.707731	
0.332288	-0.023580	0.707773	
0.332287	-0.023582	0.707760	
0.332288	-0.023585	0.707748	
0.332290	-0.023582	0.707751	
0.332293	-0.023577	0.707754	
0.332297	-0.023575	0.707791	
0.332293	-0.023574	0.707769	
0.332297	-0.023577	0.707775	
0.332299	-0.023581	0.707756	
0.332303	-0.023580	0.707797	
0.332303	-0.023571	0.707763	
0.332304	-0.023568	0.707778	
0.332305	-0.023570	0.707765	
0.332307	-0.023571	0.707766	
0.332309	-0.023571	0.707783	
0.332308	-0.023564	0.707761	
0.332310	-0.023562	0.707769	
0.332310	-0.023564	0.707795	
0.332311	-0.023567	0.707774	
0.332311	-0.023571	0.707772	
0.332307	-0.023566	0.707756	
0.332308	-0.023564	0.707779	
0.332307	-0.023566	0.707768	
0.332305	-0.023572	0.707751	
0.332305	-0.023576	0.707780	
0.332303	-0.023572	0.707775	
0.332306	-0.023570	0.707793	
0.332298	-0.023570	0.707749	
0.332300	-0.023573	0.707754	
0.332299	-0.023580	0.707756	
0.332296	-0.023578	0.707761	
0.332295	-0.023578	0.707757	
0.332293	-0.023572	0.707748	
0.332292	-0.023579	0.707756	
0.332292	-0.023584	0.707773	
0.332294	-0.023586	0.707752	
0.332291	-0.023584	0.707756	
0.332290	-0.023584	0.707764	
0.332289	-0.023583	0.707770	
0.332284	-0.023582	0.707757	
0.332285	-0.023584	0.707737	
0.332282	-0.023585	0.707780	
0.332280	-0.023579	0.707755	
0.332280	-0.023579	0.707750	
0.332279	-0.023581	0.707746	
0.332280	-0.023585	0.707742	
0.332281	-0.023588	0.707751	
0.332278	-0.023590	0.707744	
0.332279	-0.023584	0.707740	
0.332279	-0.023587	0.707732	
0.332275	-0.023586	0.707737	
0.332277	-0.023592	0.707734	
0.332278	-0.023589	0.707730	
0.332281	-0.023586	0.707747	
0.332277	-0.023583	0.707726	
0.332275	-0.023583	0.707761	
0.332276	-0.023590	0.707735	
0.332275	-0.023586	0.707702	
0.332276	-0.023588	0.707739	
0.332280	-0.023589	0.707743	
0.332279	-0.023589	0.707733	
0.332276	-0.023594	0.707727	
0.332277	-0.023595	0.707728	
0.332275	-0.023591	0.707732	
0.332275	-0.023583	0.707741	
0.332276	-0.023583	0.707757	
0.332273	-0.023584	0.707726	
0.332278	-0.023588	0.707735	
0.332275	-0.023592	0.707754	
0.332276	-0.023586	0.707715	
0.332275	-0.023579	0.707744	
0.332275	-0.023579	0.707750	
0.332278	-0.023582	0.707740	
0.332275	-0.023583	0.707754	
0.332274	-0.023577	0.707737	
0.332275	-0.023571	0.707745	
0.332272	-0.023571	0.707761	
0.332278	-0.023571	0.707763	
0.332274	-0.023571	0.707761	
0.332271	-0.023571	0.707764	
0.332270	-0.023566	0.707745	
0.332269	-0.023561	0.707755	
0.332269	-0.023562	0.707760	
0.332269	-0.023569	0.707752	
0.332269	-0.023568	0.707759	
0.332268	-0.023570	0.707764	
0.332268	-0.023567	0.707779	
0.332265	-0.023564	0.707759	
0.332269	-0.023565	0.707748	
0.332266	-0.023568	0.707776	
0.332263	-0.023567	0.707744	
0.332261	-0.023564	0.707752	
0.332263	-0.023564	0.707767	
0.332265	-0.023565	0.707780	
0.332261	-0.023573	0.707748	
0.332265	-0.023573	0.707768	
0.332262	-0.023570	0.707744	
0.332264	-0.023569	0.707737	
0.332268	-0.023571	0.707770	
0.332266	-0.023576	0.707735	
0.332266	-0.023581	0.707735	
0.332266	-0.023577	0.707754	
0.332266	-0.023576	0.707753	
0.332268	-0.023573	0.707759	
0.332270	-0.023576	0.707762	
0.332270	-0.023581	0.707734	
0.332272	-0.023579	0.707735	
0.332274	-0.023582	0.707767	
0.332273	-0.023578	0.707730	
0.332274	-0.023577	0.707745	
0.332278	-0.023587	0.707741	
0.332276	-0.023588	0.707731	
0.332278	-0.023586	0.707732	
0.332280	-0.023584	0.707736	
0.332280	-0.023588	0.707738	
0.332281	-0.023588	0.707729	
0.332282	-0.023591	0.707760	
0.332285	-0.023592	0.707757	
0.332286	-0.023588	0.707720	
0.332287	-0.023587	0.707735	
0.332288	-0.023589	0.707740	
0.332292	-0.023595	0.707742	
0.332290	-0.023596	0.707707	
0.332289	-0.023595	0.707737	
0.332291	-0.023592	0.707734	
0.332294	-0.023596	0.707735	
0.332293	-0.023596	0.707736	
0.332297	-0.023597	0.707746	
0.332297	-0.023593	0.707742	
0.332296	-0.023591	0.707751	
0.332296	-0.023586	0.707760	
0.332296	-0.023588	0.707765	
0.332296	-0.023589	0.707727	
0.332296	-0.023592	0.707737	
0.332300	-0.023586	0.707733	
0.332302	-0.023585	0.707761	
0.332301	-0.023585	0.707775	
0.332300	-0.023587	0.707751	
0.332301	-0.023585	0.707746	
0.332302	-0.023582	0.707755	
0.332300	-0.023579	0.707750	
0.332302	-0.023571	0.707739	
0.332301	-0.023571	0.707750	
0.332304	-0.023574	0.707748	
0.332305	-0.023571	0.707753	
0.332306	-0.023570	0.707776	
0.332304	-0.023567	0.707759	
0.332303	-0.023566	0.707759	
0.332304	-0.023569	0.707758	
0.332309	-0.023574	0.707779	
0.332309	-0.023570	0.707781	
0.332311	-0.023569	0.707786	
0.332304	-0.023568	0.707784	
0.332308	-0.023572	0.707768	
0.332307	-0.023570	0.707757	
0.332306	-0.023569	0.707769	
0.332306	-0.023568	0.707786	
0.332308	-0.023564	0.707766	
0.332310	-0.023570	0.707779	
0.332309	-0.023576	0.707765	
0.332311	-0.023573	0.707744	
0.332313	-0.023574	0.707755	
0.332312	-0.023572	0.707767	
0.332313	-0.023580	0.707770	
0.332315	-0.023577	0.707757	
0.332315	-0.023580	0.707756	
0.332315	-0.023578	0.707772	
0.332315	-0.023574	0.707751	
0.332313	-0.023578	0.707769	
0.332316	-0.023574	0.707786	
0.332312	-0.023581	0.707755	
0.332316	-0.023578	0.707745	
0.332315	-0.023577	0.707754	
0.332313	-0.023574	0.707737	
0.332313	-0.023581	0.707756	
0.332314	-0.023583	0.707752	
0.332310	-0.023582	0.707747	
0.332308	-0.023583	0.707737	
0.332309	-0.023582	0.707732	
0.332308	-0.023582	0.707731	
0.332309	-0.023585	0.707754	
0.332308	-0.023590	0.707748	
0.332308	-0.023591	0.707761	
0.332305	-0.023586	0.707722	
0.332308	-0.023591	0.707762	
0.332306	-0.023592	0.707747	
0.332305	-0.023596	0.707737	
0.332305	-0.023595	0.707748	
0.332302	-0.023593	0.707715	
0.332300	-0.023593	0.707728	
0.332298	-0.023598	0.707745	
0.332299	-0.023594	0.707734	
0.332295	-0.023597	0.707724	
0.332293	-0.023593	0.707720	
0.332296	-0.023590	0.707738	
0.332295	-0.023589	0.707743	
0.332295	-0.023591	0.707741	
0.332290	-0.023590	0.707748	
0.332292	-0.023591	0.707742	
0.332291	-0.023584	0.707754	
0.332290	-0.023579	0.707748	
0.332292	-0.023583	0.707752	
0.332290	-0.023586	0.707732	
0.332290	-0.023583	0.707751	
0.332288	-0.023579	0.707754	
0.332289	-0.023575	0.707744	
0.332289	-0.023571	0.707758	
0.332288	-0.023573	0.707744	
0.332284	-0.023575	0.707732	
0.332287	-0.023573	0.707733	
0.332285	-0.023570	0.707746	
0.332283	-0.023572	0.707770	
0.332281	-0.023572	0.707779	
0.332280	-0.023573	0.707772	
0.332281	-0.023575	0.707789	
0.332280	-0.023575	0.707760	
0.332280	-0.023572	0.707763	
0.332281	-0.023569	0.707743	
0.332277	-0.023572	0.707774	
0.332281	-0.023575	0.707765	
0.332278	-0.023573	0.707761	
0.332278	-0.023569	0.707753	
0.332276	-0.023570	0.707748	
0.332278	-0.023570	0.707765	
0.332278	-0.023573	0.707752	
0.332280	-0.023569	0.707755	
0.332280	-0.023569	0.707764	
0.332277	-0.023566	0.707773	
0.332276	-0.023569	0.707747	
0.332277	-0.023570	0.707785	
0.332272	-0.023572	0.707775	
0.332272	-0.023571	0.707753	
0.332272	-0.023569	0.707773	
0.332273	-0.023564	0.707745	
0.332272	-0.023569	0.707763	
0.332275	-0.023572	0.707771	
0.332270	-0.023571	0.707772	
0.332271	-0.023570	0.707767	
0.332273	-0.023570	0.707761	
0.332274	-0.023570	0.707723	
0.332276	-0.023574	0.707744	
0.332276	-0.023581	0.707747	
0.332275	-0.023578	0.707753	
0.332274	-0.023574	0.707739	
0.332273	-0.023580	0.707744	
0.332277	-0.023583	0.707731	
0.332272	-0.023585	0.707718	
0.332274	-0.023586	0.707740	
0.332273	-0.023581	0.707739	
0.332275	-0.023582	0.707740	
0.332271	-0.023588	0.707743	
0.332274	-0.023594	0.707736	
0.332271	-0.023597	0.707746	
0.332273	-0.023591	0.707738	
0.332274	-0.023590	0.707738	
0.332271	-0.023589	0.707751	
0.332277	-0.023592	0.707733	
0.332275	-0.023592	0.707709	
0.332278	-0.023595	0.707729	
0.332279	-0.023585	0.707738	
0.332283	-0.023589	0.707748	
0.332283	-0.023590	0.707733	
0.332281	-0.023589	0.707733	
0.332281	-0.023590	0.707733	
0.332284	-0.023590	0.707754	
0.332287	-0.023582	0.707736	
0.332287	-0.023583	0.707729	
0.332290	-0.023584	0.707735	
0.332291	-0.023587	0.707758	
0.332292	-0.023581	0.707736	
0.332292	-0.023575	0.707740	
0.332297	-0.023576	0.707741	
0.332293	-0.023578	0.707740	
0.332297	-0.023581	0.707725	
0.332302	-0.023578	0.707758	
0.332298	-0.023578	0.707761	
0.332301	-0.023576	0.707764	
0.332300	-0.023575	0.707719	
0.332302	-0.023583	0.707758	
0.332304	-0.023584	0.707747	
0.332308	-0.023578	0.707769	
0.332307	-0.023575	0.707755	
0.332307	-0.023576	0.707770	
0.332309	-0.023573	0.707737	
0.332314	-0.023578	0.707778	
0.332312	-0.023576	0.707749	
0.332319	-0.023570	0.707773	
0.332314	-0.023571	0.707764	
0.332316	-0.023574	0.707761	
0.332316	-0.023577	0.707739	
0.332315	-0.023578	0.707762	
0.332316	-0.023571	0.707770	
0.332321	-0.023563	0.707757	
0.332319	-0.023571	0.707772	
0.332317	-0.023574	0.707763	
0.332320	-0.023575	0.707748	
0.332318	-0.023572	0.707772	
0.332322	-0.023568	0.707775	
0.332319	-0.023570	0.707784	
0.332320	-0.023568	0.707742	
0.332321	-0.023577	0.707743	
0.332322	-0.023574	0.707755	
0.332322	-0.023574	0.707763	
0.332323	-0.023569	0.707760	
0.332319	-0.023573	0.707749	
0.332321	-0.023578	0.707749	
0.332321	-0.023579	0.707760	
0.332321	-0.023579	0.707725	
0.332318	-0.023576	0.707777	
0.332321	-0.023581	0.707772	
0.332318	-0.023584	0.707753	
0.332317	-0.023594	0.707746	
0.332316	-0.023587	0.707736	
0.332318	-0.023586	0.707751	
0.332316	-0.023587	0.707742	
0.332317	-0.023589	0.707715	
0.332311	-0.023592	0.707730	
0.332312	-0.023592	0.707717	
0.332312	-0.023590	0.707730	
0.332312	-0.023586	0.707742	
0.332315	-0.023589	0.707731	
0.332313	-0.023595	0.707747	
0.332315	-0.023592	0.707735	
0.332314	-0.023592	0.707719	
0.332316	-0.023592	0.707740	
0.332314	-0.023586	0.707729	
0.332317	-0.023593	0.707753	
0.332314	-0.023592	0.707753	
0.332317	-0.023592	0.707745	
0.332313	-0.023592	0.707749	
0.332314	-0.023586	0.707762	
0.332312	-0.023586	0.707762	
0.332311	-0.023586	0.707736	
0.332311	-0.023592	0.707738	
0.332310	-0.023588	0.707753	
0.332313	-0.023582	0.707745	
0.332309	-0.023584	0.707735	
0.332309	-0.023583	0.707725	
0.332310	-0.023588	0.707742	
0.332310	-0.023590	0.707743	
0.332308	-0.023584	0.707758	
0.332306	-0.023579	0.707741	
0.332308	-0.023584	0.707770	
0.332306	-0.023587	0.707760	
0.332304	-0.023585	0.707739	
0.332309	-0.023584	0.707759	
0.332303	-0.023578	0.707749	
0.332305	-0.023581	0.707758	
0.332302	-0.023586	0.707752	
0.332303	-0.023584	0.707771	
0.332299	-0.023582	0.707756	
0.332300	-0.023574	0.707742	
0.332302	-0.023577	0.707747	
0.332299	-0.023572	0.707748	
0.332297	-0.023574	0.707723	
0.332301	-0.023575	0.707742	
0.332298	-0.023570	0.707748	
0.332297	-0.023565	0.707736	
0.332297	-0.023569	0.707769	
0.332298	-0.023574	0.707755	
0.332297	-0.023569	0.707735	
0.332297	-0.023569	0.707777	
0.332295	-0.023568	0.707768	
0.332293	-0.023565	0.707752	
0.332295	-0.023572	0.707765	
0.332294	-0.023573	0.707747	
0.332296	-0.023575	0.707766	
0.332292	-0.023571	0.707761	
0.332293	-0.023569	0.707761	
0.332293	-0.023568	0.707768	
0.332290	-0.023576	0.707771	
0.332295	-0.023575	0.707729	
0.332293	-0.023575	0.707749	
0.332294	-0.023577	0.707753	
0.332293	-0.023578	0.707753	
0.332294	-0.023581	0.707735	
0.332294	-0.023586	0.707740	
0.332296	-0.023584	0.707730	
0.332295	-0.023579	0.707721	
0.332294	-0.023583	0.707738	
0.332294	-0.023585	0.707746	
0.332292	-0.023588	0.707715	
0.332291	-0.023590	0.707727	
0.332292	-0.023586	0.707714	
0.332291	-0.023586	0.707730	
0.332291	-0.023585	0.707754	
0.332290	-0.023590	0.707730	
0.332291	-0.023592	0.707710	
0.332289	-0.023592	0.707739	
0.332290	-0.023588	0.707719	
0.332288	-0.023587	0.707723	
0.332289	-0.023586	0.707705	
0.332292	-0.023589	0.707740	
0.332292	-0.023587	0.707716	
0.332292	-0.023580	0.707713	
0.332295	-0.023583	0.707753	
0.332291	-0.023585	0.707733	
0.332293	-0.023588	0.707743	
0.332293	-0.023588	0.707711	
0.332294	-0.023586	0.707735	
0.332291	-0.023578	0.707711	
0.332292	-0.023586	0.707724	
0.332289	-0.023586	0.707713	
0.332289	-0.023591	0.707716	
0.332291	-0.023585	0.707742	
0.332292	-0.023583	0.707737	
0.332290	-0.023581	0.707738	
0.332292	-0.023578	0.707732	
0.332293	-0.023587	0.707747	
0.332294	-0.023584	0.707760	
0.332292	-0.023577	0.707725	
0.332292	-0.023576	0.707739	
0.332294	-0.023577	0.707758	
0.332297	-0.023580	0.707720	
0.332296	-0.023585	0.707740	
0.332299	-0.023580	0.707747	
0.332299	-0.023573	0.707730	
0.332301	-0.023575	0.707741	
0.332301	-0.023577	0.707744	
0.332302	-0.023575	0.707730	
0.332303	-0.023575	0.707737	
0.332304	-0.023569	0.707743	
0.332305	-0.023566	0.707739	
0.332304	-0.023573	0.707773	
0.332305	-0.023575	0.707765	
0.332308	-0.023577	0.707746	
0.332307	-0.023571	0.707773	
0.332306	-0.023564	0.707744	
0.332306	-0.023569	0.707756	
0.332307	-0.023565	0.707751	
0.332310	-0.023572	0.707752	
0.332313	-0.023573	0.707761	
0.332312	-0.023570	0.707739	
0.332315	-0.023569	0.707732	
0.332314	-0.023571	0.707752	
0.332315	-0.023577	0.707767	
0.332316	-0.023578	0.707759	
0.332315	-0.023575	0.707760	
0.332316	-0.023576	0.707761	
0.332317	-0.023578	0.707754	
0.332315	-0.023582	0.707766	
0.332315	-0.023582	0.707763	
0.332315	-0.023585	0.707758	
0.332316	-0.023579	0.707777	
0.332317	-0.023578	0.707748	
0.332314	-0.023585	0.707748	
0.332313	-0.023585	0.707741	
0.332312	-0.023584	0.707748	
0.332315	-0.023582	0.707756	
0.332314	-0.023583	0.707747	
0.332315	-0.023584	0.707749	
0.332315	-0.023589	0.707725	
0.332316	-0.023589	0.707745	
0.332313	-0.023587	0.707754	
0.332315	-0.023584	0.707750	
0.332314	-0.023583	0.707766	
0.332311	-0.023586	0.707741	
0.332311	-0.023587	0.707746	
0.332314	-0.023586	0.707725	
0.332310	-0.023584	0.707734	
0.332312	-0.023581	0.707729	
0.332311	-0.023584	0.707737	
0.332308	-0.023587	0.707718	
0.332310	-0.023589	0.707705	
0.332306	-0.023588	0.707741	
0.332310	-0.023580	0.707745	
0.332306	-0.023583	0.707727	
0.332307	-0.023585	0.707728	
0.332308	-0.023590	0.707744	
0.332308	-0.023586	0.707767	
0.332310	-0.023579	0.707765	
0.332308	-0.023582	0.707740	
0.332307	-0.023586	0.707727	
0.332305	-0.023590	0.707725	
0.332305	-0.023592	0.707743	
0.332308	-0.023589	0.707734	
0.332305	-0.023587	0.707745	
0.332305	-0.023584	0.707753	
0.332304	-0.023590	0.707718	
0.332301	-0.023589	0.707732	
0.332303	-0.023586	0.707739	
0.332301	-0.023582	0.707730	
0.332300	-0.023579	0.707773	
0.332302	-0.023578	0.707743	
0.332301	-0.023583	0.707752	
0.332306	-0.023585	0.707765	
0.332302	-0.023574	0.707762	
0.332303	-0.023571	0.707753	
0.332301	-0.023574	0.707749	
0.332300	-0.023579	0.707767	
0.332300	-0.023582	0.707747	
0.332301	-0.023576	0.707765	
0.332297	-0.023570	0.707749	
0.332302	-0.023569	0.707752	
0.332298	-0.023574	0.707778	
0.332297	-0.023573	0.707758	
0.332293	-0.023575	0.707769	
0.332295	-0.023570	0.707749	
0.332291	-0.023567	0.707733	
0.332296	-0.023570	0.707744	
0.332289	-0.023574	0.707745	
0.332292	-0.023576	0.707749	
0.332291	-0.023575	0.707753	
0.332289	-0.023572	0.707734	
0.332291	-0.023572	0.707746	
0.332289	-0.023580	0.707764	
0.332286	-0.023580	0.707732	
0.332286	-0.023575	0.707744	
0.332290	-0.023570	0.707751	
0.332288	-0.023569	0.707757	
0.332286	-0.023574	0.707747	
0.332289	-0.023583	0.707770	
0.332282	-0.023579	0.707726	
0.332287	-0.023577	0.707734	
0.332286	-0.023575	0.707765	
0.332287	-0.023579	0.707732	
0.332284	-0.023582	0.707728	
0.332282	-0.023582	0.707741	
0.332282	-0.023581	0.707759	
0.332285	-0.023577	0.707747	
0.332284	-0.023578	0.707764	
0.332283	-0.023578	0.707750	
0.332283	-0.023581	0.707722	
0.332285	-0.023579	0.707740	
0.332284	-0.023576	0.707725	
0.332283	-0.023577	0.707734	
0.332286	-0.023582	0.707736	
0.332284	-0.023583	0.707723	
0.332287	-0.023584	0.707718	
0.332287	-0.023588	0.707738	
0.332290	-0.023583	0.707734	
0.332290	-0.023585	0.707741	
0.332288	-0.023588	0.707727	
0.332291	-0.023587	0.707720	
0.332289	-0.023586	0.707733	
0.332287	-0.023585	0.707733	
0.332289	-0.023584	0.707713	
0.332293	-0.023591	0.707746	
0.332293	-0.023593	0.707733	
0.332291	-0.023591	0.707716	
0.332294	-0.023587	0.707732	
0.332292	-0.023589	0.707729	
0.332293	-0.023587	0.707731	
0.332292	-0.023587	0.707733	
0.332295	-0.023592	0.707740	
0.332297	-0.023588	0.707744	
0.332292	-0.023580	0.707726	
0.332296	-0.023579	0.707745	
0.332300	-0.023589	0.707744	
0.332301	-0.023581	0.707728	
0.332301	-0.023581	0.707750	
0.332300	-0.023577	0.707768	
0.332300	-0.023576	0.707755	
0.332302	-0.023580	0.707738	
0.332305	-0.023584	0.707773	
0.332304	-0.023576	0.707750	
0.332304	-0.023573	0.707749	
0.332304	-0.023572	0.707756	
0.332304	-0.023572	0.707740	
0.332306	-0.023577	0.707772	
0.332308	-0.023575	0.707742	
0.332306	-0.023572	0.707749	
0.332306	-0.023571	0.707754	
0.332309	-0.023575	0.707756	
0.332308	-0.023583	0.707742	
0.332313	-0.023578	0.707748	
0.332311	-0.023575	0.707755	
0.332311	-0.023575	0.707758	
0.332312	-0.023572	0.707761	
0.332313	-0.023575	0.707756	
0.332310	-0.023575	0.707748	
0.332316	-0.023576	0.707776	
0.332313	-0.023574	0.707765	
0.332314	-0.023574	0.707750	
0.332315	-0.023577	0.707753	
0.332316	-0.023578	0.707746	
0.332315	-0.023578	0.707769	
0.332310	-0.023573	0.707728	
0.332314	-0.023576	0.707757	
0.332314	-0.023575	0.707744	
0.332317	-0.023577	0.707750	
0.332319	-0.023579	0.707759	
0.332314	-0.023576	0.707740	
0.332316	-0.023574	0.707755	
0.332315	-0.023571	0.707764	
0.332311	-0.023576	0.707762	
0.332311	-0.023578	0.707752	
0.332312	-0.023581	0.707755	
0.332314	-0.023582	0.707760	
0.332313	-0.023579	0.707744	
0.332313	-0.023581	0.707754	
0.332311	-0.023588	0.707730	
0.332309	-0.023582	0.707742	
0.332306	-0.023583	0.707721	
0.332307	-0.023582	0.707725	
0.332305	-0.023581	0.707729	
0.332308	-0.023589	0.707740	
0.332307	-0.023586	0.707719	
0.332302	-0.023588	0.707740	
0.332303	-0.023585	0.707739	
0.332301	-0.023585	0.707727	
0.332303	-0.023587	0.707746	
0.332301	-0.023589	0.707720	
0.332301	-0.023589	0.707734	
0.332300	-0.023587	0.707731	
0.332302	-0.023586	0.707731	
0.332304	-0.023584	0.707723	
0.332302	-0.023587	0.707723	
0.332297	-0.023588	0.707718	
0.332300	-0.023584	0.707745	
0.332298	-0.023584	0.707754	
0.332297	-0.023579	0.707733	
0.332295	-0.023584	0.707735	
0.332297	-0.023585	0.707727	
0.332298	-0.023586	0.707746	
0.332300	-0.023585	0.707745	
0.332300	-0.023581	0.707739	
0.332297	-0.023582	0.707775	
0.332299	-0.023583	0.707762	
0.332297	-0.023582	0.707750	
0.332299	-0.023582	0.707753	
0.332296	-0.023574	0.707748	
0.332293	-0.023576	0.707766	
0.332293	-0.023575	0.707735	
0.332297	-0.023578	0.707734	
0.332297	-0.023578	0.707751	
0.332296	-0.023577	0.707766	
0.332296	-0.023574	0.707745	
0.332296	-0.023575	0.707749	
0.332292	-0.023581	0.707758	
0.332292	-0.023582	0.707760	
0.332294	-0.023577	0.707767	
0.332290	-0.023575	0.707757	
0.332293	-0.023572	0.707769	
0.332291	-0.023573	0.707759	
0.332289	-0.023576	0.707777	
0.332285	-0.023572	0.707749	
0.332289	-0.023570	0.707771	
0.332284	-0.023566	0.707756	
0.332287	-0.023568	0.707751	
0.332285	-0.023572	0.707752	
0.332285	-0.023577	0.707760	
0.332284	-0.023572	0.707743	
0.332283	-0.023572	0.707760	
0.332285	-0.023572	0.707756	
0.332282	-0.023574	0.707757	
0.332282	-0.023573	0.707802	
0.332281	-0.023571	0.707767	
0.332279	-0.023568	0.707760	
0.332276	-0.023568	0.707740	
0.332274	-0.023578	0.707755	
0.332276	-0.023579	0.707763	
0.332275	-0.023577	0.707754	
0.332276	-0.023577	0.707770	
0.332278	-0.023571	0.707741	
0.332275	-0.023579	0.707758	
0.332273	-0.023582	0.707733	
0.332274	-0.023583	0.707748	
0.332273	-0.023581	0.707755	
0.332275	-0.023581	0.707766	
0.332276	-0.023580	0.707754	
0.332273	-0.023584	0.707774	
0.332276	-0.023589	0.707716	
0.332276	-0.023586	0.707730	
0.332278	-0.023583	0.707750	
0.332277	-0.023586	0.707762	
0.332277	-0.023590	0.707730	
0.332275	-0.023595	0.707736	
0.332280	-0.023594	0.707732	
0.332277	-0.023589	0.707755	
0.332277	-0.023589	0.707740	
0.332278	-0.023587	0.707739	
0.332278	-0.023591	0.707723	
0.332282	-0.023588	0.707742	
0.332277	-0.023584	0.707726	
0.332283	-0.023584	0.707744	
0.332283	-0.023584	0.707738	
0.332287	-0.023586	0.707732	
0.332287	-0.023593	0.707751	
0.332290	-0.023591	0.707752	
0.332287	-0.023586	0.707744	
0.332291	-0.023587	0.707750	
0.332291	-0.023588	0.707752	
0.332294	-0.023586	0.707749	
0.332293	-0.023590	0.707753	
0.332294	-0.023585	0.707773	
0.332293	-0.023580	0.707747	
0.332293	-0.023581	0.707739	
0.332294	-0.023586	0.707745	
0.332295	-0.023584	0.707743	
0.332297	-0.023584	0.707736	
0.332296	-0.023582	0.707778	
0.332298	-0.023580	0.707751	
0.332301	-0.023582	0.707741	
0.332298	-0.023588	0.707771	
0.332299	-0.023583	0.707750	
0.332299	-0.023580	0.707770	
0.332300	-0.023573	0.707764	
0.332303	-0.023572	0.707756	
0.332304	-0.023577	0.707773	
0.332309	-0.023578	0.707785	
0.332310	-0.023576	0.707780	
0.332303	-0.023569	0.707773	
0.332310	-0.023574	0.707780	
0.332307	-0.023571	0.707784	
0.332309	-0.023578	0.707771	
0.332310	-0.023574	0.707765	
0.332311	-0.023569	0.707781	
0.332309	-0.023570	0.707762	
0.332310	-0.023566	0.707784	
0.332314	-0.023570	0.707770	
0.332312	-0.023574	0.707767	
0.332314	-0.023573	0.707778	
0.332313	-0.023568	0.707777	
0.332316	-0.023572	0.707779	
0.332317	-0.023576	0.707786	
0.332315	-0.023579	0.707755	
0.332316	-0.023584	0.707766	
0.332319	-0.023581	0.707769	
0.332316	-0.023577	0.707743	
0.332319	-0.023585	0.707752	
0.332318	-0.023584	0.707750	
0.332322	-0.023589	0.707768	
0.332319	-0.023583	0.707752	
0.332323	-0.023584	0.707759	
0.332319	-0.023582	0.707747	
0.332321	-0.023586	0.707763	
0.332321	-0.023590	0.707776	
0.332319	-0.023588	0.707752	
0.332320	-0.023588	0.707728	
0.332321	-0.023590	0.707752	
0.332322	-0.023588	0.707755	
0.332316	-0.023592	0.707752	
0.332321	-0.023589	0.707746	
0.332320	-0.023584	0.707751	
0.332316	-0.023588	0.707743	
0.332318	-0.023587	0.707751	
0.332320	-0.023591	0.707742	
0.332320	-0.023592	0.707757	
0.332317	-0.023591	0.707746	
0.332317	-0.023585	0.707724	
0.332314	-0.023585	0.707738	
0.332315	-0.023591	0.707738	
0.332315	-0.023592	0.707739	
0.332314	-0.023591	0.707744	
0.332313	-0.023588	0.707768	
0.332314	-0.023587	0.707750	
0.332312	-0.023589	0.707757	
0.332314	-0.023592	0.707773	
0.332311	-0.023591	0.707754	
0.332310	-0.023585	0.707758	
0.332308	-0.023583	0.707760	
0.332307	-0.023581	0.707740	
0.332307	-0.023585	0.707721	
0.332306	-0.023590	0.707770	
0.332308	-0.023587	0.707739	
0.332306	-0.023585	0.707747	
0.332304	-0.023581	0.707760	
0.332303	-0.023585	0.707749	
0.332305	-0.023584	0.707777	
0.332305	-0.023582	0.707786	
0.332303	-0.023577	0.707788	
0.332305	-0.023573	0.707760	
0.332304	-0.023574	0.707763	
0.332305	-0.023579	0.707773	
0.332303	-0.023581	0.707790	
0.332301	-0.023572	0.707760	
0.332306	-0.023569	0.707780	
0.332300	-0.023568	0.707739	
0.332300	-0.023572	0.707767	
0.332301	-0.023574	0.707767	
0.332302	-0.023576	0.707756	
0.332303	-0.023571	0.707763	
0.332303	-0.023569	0.707781	
0.332301	-0.023570	0.707759	
0.332301	-0.023571	0.707773	
0.332302	-0.023571	0.707775	
0.332298	-0.023574	0.707752	
0.332301	-0.023572	0.707786	
0.332304	-0.023572	0.707776	
0.332298	-0.023579	0.707772	
0.332295	-0.023583	0.707752	
0.332299	-0.023580	0.707764	
0.332298	-0.023577	0.707771	
0.332297	-0.023576	0.707752	
0.332294	-0.023576	0.707744	
0.332294	-0.023578	0.707772	
0.332294	-0.023579	0.707775	
0.332294	-0.023581	0.707757	
0.332294	-0.023579	0.707758	
0.332290	-0.023581	0.707753	
0.332293	-0.023581	0.707754	
0.332286	-0.023588	0.707747	
0.332290	-0.023588	0.707753	
0.332287	-0.023584	0.707761	
0.332284	-0.023584	0.707752	
0.332285	-0.023583	0.707748	
0.332286	-0.023586	0.707753	
0.332282	-0.023586	0.707741	
0.332284	-0.023582	0.707734	
0.332282	-0.023584	0.707741	
0.332278	-0.023585	0.707725	
0.332280	-0.023587	0.707738	
0.332277	-0.023590	0.707746	
0.332277	-0.023589	0.707739	
0.332279	-0.023588	0.707731	
0.332281	-0.023588	0.707770	
0.332278	-0.023591	0.707733	
0.332280	-0.023596	0.707736	
0.332277	-0.023586	0.707731	
0.332276	-0.023587	0.707744	
0.332278	-0.023586	0.707758	
0.332275	-0.023585	0.707727	
0.332278	-0.023587	0.707737	
0.332280	-0.023586	0.707727	
0.332279	-0.023589	0.707752	
0.332283	-0.023582	0.707755	
0.332284	-0.023586	0.707737	
0.332282	-0.023593	0.707743	
0.332282	-0.023592	0.707732	
0.332282	-0.023592	0.707717	
0.332284	-0.023583	0.707751	
0.332287	-0.023583	0.707735	
0.332285	-0.023579	0.707735	
0.332289	-0.023586	0.707746	
0.332288	-0.023585	0.707758	
0.332290	-0.023580	0.707738	
0.332293	-0.023577	0.707774	
0.332291	-0.023576	0.707744	
0.332291	-0.023584	0.707747	
0.332294	-0.023582	0.707743	
0.332297	-0.023580	0.707749	
0.332295	-0.023573	0.707744	
0.332299	-0.023574	0.707743	
0.332299	-0.023579	0.707764	
0.332299	-0.023580	0.707743	
0.332302	-0.023579	0.707746	
0.332299	-0.023570	0.707757	
0.332299	-0.023570	0.707763	
0.332305	-0.023572	0.707765	
0.332301	-0.023575	0.707780	
0.332303	-0.023576	0.707755	
0.332304	-0.023573	0.707761	
0.332303	-0.023574	0.707773	
0.332304	-0.023575	0.707771	
0.332305	-0.023577	0.707768	
0.332303	-0.023580	0.707734	
0.332302	-0.023578	0.707744	
0.332305	-0.023573	0.707746	
0.332307	-0.023572	0.707749	
0.332305	-0.023573	0.707754	
0.332307	-0.023583	0.707736	
0.332306	-0.023578	0.707751	
0.332312	-0.023577	0.707745	
0.332310	-0.023574	0.707723	
0.332307	-0.023579	0.707736	
0.332307	-0.023582	0.707741	
0.332306	-0.023583	0.707752	
0.332304	-0.023584	0.707763	
0.332309	-0.023576	0.707751	
0.332309	-0.023582	0.707754	
0.332306	-0.023581	0.707722	
0.332308	-0.023582	0.707743	
0.332310	-0.023583	0.707761	
0.332312	-0.023581	0.707752	
0.332309	-0.023579	0.707746	
0.332314	-0.023583	0.707745	
0.332314	-0.023586	0.707737	
0.332314	-0.023586	0.707717	
0.332316	-0.023586	0.707719	
0.332316	-0.023581	0.707732	
0.332320	-0.023584	0.707745	
0.332318	-0.023587	0.707743	
0.332317	-0.023585	0.707735	
0.332319	-0.023586	0.707726	
0.332321	-0.023584	0.707742	
0.332318	-0.023584	0.707734	
0.332321	-0.023588	0.707725	
0.332316	-0.023593	0.707744	
0.332319	-0.023591	0.707725	
0.332316	-0.023596	0.707730	
0.332316	-0.023586	0.707717	
0.332316	-0.023588	0.707727	
0.332323	-0.023594	0.707745	
0.332321	-0.023589	0.707718	
0.332322	-0.023589	0.707741	
0.332322	-0.023583	0.707750	
0.332322	-0.023585	0.707747	
0.332322	-0.023583	0.707737	
0.332325	-0.023589	0.707737	
0.332322	-0.023585	0.707752	
0.332327	-0.023584	0.707750	
0.332323	-0.023582	0.707737	
0.332320	-0.023579	0.707732	
0.332322	-0.023588	0.707758	
0.332321	-0.023587	0.707738	
0.332319	-0.023587	0.707723	
0.332322	-0.023575	0.707753	
0.332317	-0.023574	0.707746	
0.332316	-0.023574	0.707754	
0.332321	-0.023576	0.707751	
0.332315	-0.023575	0.707739	
0.332315	-0.023573	0.707756	
0.332314	-0.023573	0.707764	
0.332313	-0.023572	0.707771	
0.332312	-0.023581	0.707761	
0.332312	-0.023575	0.707755	
0.332310	-0.023574	0.707757	
0.332310	-0.023573	0.707787	
0.332313	-0.023570	0.707761	
0.332309	-0.023575	0.707751	
0.332308	-0.023575	0.707746	
0.332305	-0.023575	0.707738	
0.332304	-0.023569	0.707767	
0.332306	-0.023569	0.707772	
0.332303	-0.023567	0.707740	
0.332303	-0.023576	0.707762	
0.332303	-0.023577	0.707748	
0.332302	-0.023577	0.707742	
0.332301	-0.023575	0.707743	
0.332299	-0.023577	0.707754	
0.332299	-0.023580	0.707766	
0.332301	-0.023582	0.707743	
0.332300	-0.023581	0.707771	
0.332298	-0.023574	0.707754	
0.332297	-0.023571	0.707757	
0.332298	-0.023576	0.707769	
0.332298	-0.023582	0.707763	
0.332299	-0.023579	0.707754	
0.332299	-0.023579	0.707753	
0.332298	-0.023581	0.707746	
0.332296	-0.023584	0.707745	
0.332299	-0.023586	0.707748	
0.332299	-0.023590	0.707760	
0.332292	-0.023584	0.707722	
0.332294	-0.023584	0.707737	
0.332296	-0.023583	0.707751	
0.332296	-0.023582	0.707741	
0.332290	-0.023587	0.707730	
0.332291	-0.023590	0.707760	
0.332292	-0.023584	0.707771	
0.332292	-0.023585	0.707734	
0.332289	-0.023589	0.707722	
0.332292	-0.023591	0.707742	
0.332288	-0.023592	0.707742	
0.332293	-0.023591	0.707722	
0.332291	-0.023588	0.707751	
0.332295	-0.023588	0.707748	
0.332293	-0.023592	0.707751	
0.332277	-0.023584	0.707800	
0.332292	-0.023588	0.707746	
0.332290	-0.023583	0.707732	
0.332291	-0.023581	0.707735	
0.332291	-0.023586	0.707743	
0.332287	-0.023590	0.707753	
0.332290	-0.023586	0.707745	
0.332288	-0.023586	0.707728	
0.332285	-0.023583	0.707738	
0.332285	-0.023579	0.707733	
0.332289	-0.023584	0.707740	
0.332288	-0.023582	0.707727	
0.332290	-0.023580	0.707761	
0.332288	-0.023573	0.707742	
0.332291	-0.023577	0.707745	
0.332294	-0.023578	0.707757	
0.332293	-0.023578	0.707755	
0.332294	-0.023581	0.707772	
0.332295	-0.023575	0.707753	
0.332294	-0.023574	0.707771	
0.332294	-0.023580	0.707750	
0.332293	-0.023580	0.707739	
0.332296	-0.023580	0.707747	
0.332298	-0.023573	0.707746	
0.332295	-0.023569	0.707757	
0.332296	-0.023571	0.707778	
0.332297	-0.023577	0.707756	
0.332297	-0.023576	0.707749	
0.332295	-0.023576	0.707782	
0.332299	-0.023572	0.707743	
0.332297	-0.023572	0.707751	
0.332298	-0.023575	0.707747	
0.332300	-0.023581	0.707770	
0.332303	-0.023580	0.707750	
0.332299	-0.023579	0.707744	
0.332302	-0.023578	0.707768	
0.332303	-0.023575	0.707767	
0.332302	-0.023579	0.707758	
0.332306	-0.023581	0.707746	
0.332306	-0.023572	0.707763	
0.332305	-0.023570	0.707750	
0.332309	-0.023576	0.707768	
0.332305	-0.023581	0.707779	
0.332307	-0.023582	0.707770	
0.332305	-0.023580	0.707734	
0.332303	-0.023577	0.707732	
0.332307	-0.023576	0.707739	
0.332304	-0.023579	0.707744	
0.332307	-0.023583	0.707731	
0.332306	-0.023583	0.707735	
0.332306	-0.023582	0.707721	
0.332304	-0.023577	0.707746	
0.332309	-0.023579	0.707758	
0.332305	-0.023579	0.707732	
0.332307	-0.023582	0.707725	
0.332306	-0.023589	0.707762	
0.332308	-0.023585	0.707757	
0.332303	-0.023584	0.707740	
0.332306	-0.023591	0.707763	
0.332305	-0.023593	0.707721	
0.332306	-0.023590	0.707746	
0.332306	-0.023585	0.707726	
0.332305	-0.023583	0.707735	
0.332310	-0.023585	0.707743	
0.332301	-0.023585	0.707727	
0.332307	-0.023589	0.707755	
0.332304	-0.023588	0.707739	
0.332306	-0.023587	0.707755	
0.332306	-0.023588	0.707740	
0.332306	-0.023588	0.707742	
0.332308	-0.023592	0.707729	
0.332308	-0.023591	0.707731	
0.332307	-0.023590	0.707718	
0.332307	-0.023583	0.707727	
0.332307	-0.023585	0.707747	
0.332309	-0.023585	0.707730	
0.332307	-0.023585	0.707734	
0.332309	-0.023583	0.707755	
0.332310	-0.023582	0.707749	
0.332309	-0.023577	0.707743	
0.332306	-0.023583	0.707733	
0.332307	-0.023586	0.707730	
0.332305	-0.023584	0.707749	
0.332308	-0.023584	0.707761	
0.332308	-0.023580	0.707729	
0.332310	-0.023582	0.707732	
0.332307	-0.023586	0.707733	
0.332308	-0.023582	0.707736	
0.332308	-0.023579	0.707755	
0.332305	-0.023577	0.707759	
0.332305	-0.023574	0.707757	
0.332305	-0.023582	0.707746	
0.332305	-0.023585	0.707746	
0.332305	-0.023579	0.707757	
0.332305	-0.023576	0.707764	
0.332306	-0.023581	0.707772	
0.332304	-0.023578	0.707747	
0.332305	-0.023582	0.707766	
0.332304	-0.023580	0.707721	
0.332304	-0.023578	0.707757	
0.332301	-0.023575	0.707764	
0.332301	-0.023576	0.707747	
0.332299	-0.023577	0.707752	
0.332299	-0.023575	0.707741	
0.332297	-0.023577	0.707731	
0.332296	-0.023573	0.707751	
0.332296	-0.023574	0.707754	
0.332297	-0.023577	0.707744	
0.332292	-0.023580	0.707747	
0.332295	-0.023577	0.707740	
0.332293	-0.023582	0.707739	
0.332294	-0.023574	0.707739	
0.332291	-0.023580	0.707736	
0.332292	-0.023580	0.707732	
0.332290	-0.023583	0.707765	
0.332291	-0.023580	0.707751	
0.332288	-0.023572	0.707750	
0.332289	-0.023577	0.707755	
0.332290	-0.023584	0.707744	
0.332289	-0.023586	0.707748	
0.332285	-0.023584	0.707751	
0.332284	-0.023583	0.707750	
0.332286	-0.023583	0.707726	
0.332287	-0.023586	0.707746	
0.332284	-0.023588	0.707742	
0.332282	-0.023591	0.707737	
0.332280	-0.023581	0.707737	
0.332283	-0.023580	0.707735	
0.332281	-0.023584	0.707757	
0.332281	-0.023588	0.707717	
0.332283	-0.023591	0.707737	
0.332284	-0.023589	0.707745	
0.332284	-0.023586	0.707723	
0.332284	-0.023584	0.707710	
0.332282	-0.023589	0.707729	
0.332284	-0.023593	0.707725	
0.332283	-0.023590	0.707727	
0.332284	-0.023582	0.707728	
0.332286	-0.023584	0.707738	
0.332282	-0.023589	0.707730	
0.332285	-0.023585	0.707723	
0.332282	-0.023581	0.707725	
0.332282	-0.023581	0.707728	
0.332284	-0.023581	0.707730	
0.332284	-0.023587	0.707736	
0.332285	-0.023591	0.707741	
0.332281	-0.023583	0.707730	
0.332286	-0.023585	0.707745	
0.332286	-0.023582	0.707734	
0.332286	-0.023583	0.707743	
0.332285	-0.023586	0.707723	
0.332289	-0.023586	0.707761	
0.332287	-0.023581	0.707736	
0.332288	-0.023575	0.707747	
0.332289	-0.023581	0.707749	
0.332291	-0.023580	0.707753	
0.332289	-0.023583	0.707746	
0.332290	-0.023585	0.707752	
0.332288	-0.023578	0.707736	
0.332288	-0.023577	0.707722	
0.332288	-0.023577	0.707744	
0.332287	-0.023583	0.707739	
0.332286	-0.023581	0.707730	
0.332290	-0.023574	0.707740	
0.332290	-0.023572	0.707740	
0.332288	-0.023573	0.707745	
0.332290	-0.023575	0.707732	
0.332292	-0.023574	0.707781	
0.332288	-0.023572	0.707732	
0.332294	-0.023573	0.707761	
0.332293	-0.023571	0.707737	
0.332293	-0.023575	0.707747	
0.332292	-0.023577	0.707744	
0.332297	-0.023575	0.707722	
0.332294	-0.023573	0.707733	
0.332296	-0.023567	0.707746	
0.332293	-0.023571	0.707728	
0.332293	-0.023579	0.707752	
0.332298	-0.023578	0.707746	
0.332295	-0.023576	0.707742	
0.332295	-0.023575	0.707765	
0.332296	-0.023578	0.707738	
0.332297	-0.023583	0.707731	
0.332297	-0.023584	0.707732	
0.332302	-0.023580	0.707736	
0.332301	-0.023580	0.707753	
0.332302	-0.023581	0.707733	
0.332303	-0.023584	0.707732	
0.332304	-0.023590	0.707731	
0.332303	-0.023590	0.707723	
0.332308	-0.023581	0.707734	
0.332306	-0.023580	0.707737	
0.332310	-0.023582	0.707732	
0.332307	-0.023593	0.707738	
0.332309	-0.023588	0.707734	
0.332311	-0.023587	0.707753	
0.332308	-0.023584	0.707747	
0.332310	-0.023586	0.707730	
0.332313	-0.023586	0.707731	
0.332311	-0.023589	0.707736	
0.332311	-0.023583	0.707744	
0.332311	-0.023585	0.707729	
0.332309	-0.023585	0.707740	
0.332311	-0.023586	0.707746	
0.332307	-0.023587	0.707739	
0.332312	-0.023582	0.707744	
0.332311	-0.023585	0.707743	
0.332315	-0.023581	0.707741	
0.332313	-0.023580	0.707735	
0.332312	-0.023587	0.707744	
0.332311	-0.023589	0.707747	
0.332313	-0.023582	0.707727	
0.332316	-0.023583	0.707754	
0.332313	-0.023582	0.707745	
0.332317	-0.023585	0.707731	
0.332318	-0.023589	0.707743	
0.332315	-0.023586	0.707754	
0.332317	-0.023586	0.707763	
0.332313	-0.023582	0.707721	
0.332313	-0.023584	0.707746	
0.332312	-0.023584	0.707748	
0.332314	-0.023588	0.707738	
0.332314	-0.023584	0.707751	
0.332313	-0.023578	0.707740	
0.332317	-0.023580	0.707779	
0.332314	-0.023578	0.707746	
0.332314	-0.023582	0.707747	
0.332313	-0.023575	0.707718	
0.332314	-0.023571	0.707749	
0.332314	-0.023568	0.707743	
0.332318	-0.023572	0.707755	
0.332314	-0.023578	0.707753	
0.332317	-0.023576	0.707766	
0.332316	-0.023572	0.707733	
0.332315	-0.023570	0.707741	
0.332316	-0.023572	0.707737	
0.332313	-0.023572	0.707782	
0.332316	-0.023574	0.707714	
0.332309	-0.023573	0.707746	
